# .PCD v0.7 - Point Cloud Data file format
VERSION 0.7
FIELDS x y z intensity
SIZE 4 4 4 4
TYPE F F F F
COUNT 1 1 1 1
WIDTH 1655
HEIGHT 1
VIEWPOINT 0 0 0 1 0 0 0
POINTS 1655
DATA ascii
1.6532 -0.735405 -0.030978 49
2.15549 -0.95682 -0.202885 39
2.15806 -0.956638 -0.368809 41
3.37059 -1.49829 0.977708 42
3.38619 -1.51221 0.713461 49
3.37605 -1.51332 0.449363 52
1.65161 -0.745072 -0.0310216 49
2.15045 -0.968093 -0.202885 39
2.1577 -0.969563 -0.369592 41
3.38341 -1.51104 0.982231 51
3.3925 -1.52213 0.715368 52
3.38046 -1.52167 0.450276 51
1.64802 -0.746928 -0.030978 51
2.1533 -0.973888 -0.20332 39
2.15601 -0.973327 -0.369592 41
3.37792 -1.52914 0.982877 49
3.38699 -1.54029 0.715844 52
3.3747 -1.54037 0.45058 42
2.92835 -1.33978 0.166952 13
1.64877 -0.757335 -0.0310653 49
2.15724 -0.989284 -0.20419 39
2.14863 -0.98358 -0.369201 38
2.14568 -0.979567 -0.535697 39
3.38185 -1.53802 0.984816 49
3.3885 -1.54883 0.716798 53
3.3833 -1.55142 0.452101 52
2.93508 -1.34905 0.167475 13
1.64745 -0.760211 -0.0310653 49
2.15551 -0.993047 -0.20419 39
2.15365 -0.99041 -0.370375 41
2.14397 -0.98331 -0.535697 41
3.37567 -1.55731 0.985462 49
3.37143 -1.56243 0.714891 53
3.38386 -1.57387 0.453318 52
2.89151 -1.34808 0.165382 18
1.64784 -0.771221 -0.0311525 49
2.1548 -1.00642 -0.204625 39
2.1505 -1.00309 -0.370767 41
2.14083 -0.995918 -0.536259 39
3.37733 -1.56522 0.986754 49
3.3776 -1.57245 0.716798 52
3.38335 -1.58082 0.453622 52
2.88463 -1.35102 0.16512 21
1.64649 -0.774096 -0.0311525 48
2.15304 -1.01018 -0.204625 39
2.14875 -1.00684 -0.370767 39
2.1435 -1.00171 -0.537382 39
3.37812 -1.58639 0.989339 49
3.36738 -1.58848 0.716321 35
3.37755 -1.59899 0.453926 52
2.87098 -1.3624 0.164727 18
1.64481 -0.783488 -0.0311962 48
2.15447 -1.02463 -0.205277 39
2.14809 -1.01981 -0.37155 39
2.14281 -1.01462 -0.538505 39
3.37753 -1.59331 0.989986 49
3.37985 -1.60228 0.719657 51
3.377 -1.60594 0.454231 52
2.87086 -1.36848 0.164858 21
1.6457 -0.787431 -0.0312398 48
2.15043 -1.02732 -0.20506 39
2.15077 -1.02567 -0.372333 39
2.14324 -1.0194 -0.539066 39
3.3754 -1.61468 0.991924 49
3.36699 -1.61783 0.718704 51
3.37721 -1.62849 0.455448 46
2.87241 -1.38832 0.165382 20
1.64367 -0.797408 -0.0312834 48
2.15175 -1.04181 -0.205712 39
2.14982 -1.03906 -0.373116 39
2.14428 -1.03414 -0.540751 39
3.37911 -1.6237 0.993863 48
3.37964 -1.63115 0.72204 51
3.37688 -1.63487 0.455752 52
2.87022 -1.39283 0.165382 18
1.64228 -0.800276 -0.0312834 48
2.15441 -1.04773 -0.206147 39
2.15245 -1.04496 -0.373899 41
2.14924 -1.04068 -0.542435 42
3.37085 -1.64078 0.993863 48
3.37796 -1.65146 0.72347 51
3.37719 -1.65689 0.456969 52
2.86962 -1.41114 0.165774 18
1.64045 -0.809678 -0.0313271 48
2.15337 -1.06119 -0.206582 44
2.14916 -1.0573 -0.37429 44
2.15033 -1.05513 -0.54412 45
3.37884 -1.65195 0.997094 48
3.3814 -1.66118 0.7249 51
3.37652 -1.66388 0.457273 51
2.86715 -1.41614 0.165774 20
1.64352 -0.814749 -0.0314143 48
2.15822 -1.06825 -0.207234 52
2.14953 -1.06214 -0.374682 51
2.15286 -1.06102 -0.545243 51
3.37851 -1.67449 0.999679 49
3.38365 -1.68432 0.727283 51
3.34526 -1.67106 0.454231 51
2.86391 -1.43386 0.166036 21
1.64356 -0.825862 -0.0315016 46
2.16374 -1.0851 -0.208322 59
2.15259 -1.07816 -0.376248 55
2.15363 -1.07591 -0.546928 51
3.37774 -1.68145 1.00032 49
3.3807 -1.69022 0.727283 51
3.36675 -1.68911 0.457577 48
2.85471 -1.43551 0.165643 21
1.64211 -0.82873 -0.0315016 46
2.15294 -1.08441 -0.207452 46
2.14629 -1.0797 -0.375465 35
2.13431 -1.07096 -0.542435 25
3.37968 -1.70454 1.00356 49
3.38057 -1.71233 0.729189 51
1.64444 -0.840713 -0.0316325 46
2.13168 -1.08777 -0.20593 18
2.12318 -1.08162 -0.372333 15
2.11781 -1.07662 -0.539628 17
3.37239 -1.70826 1.00226 48
3.37976 -1.71933 0.729666 51
1.63629 -0.840173 -0.0315016 46
2.10316 -1.07791 -0.20332 15
2.10369 -1.07637 -0.369201 15
2.09222 -1.06782 -0.533451 17
3.3723 -1.7297 1.00485 48
3.3732 -1.73754 0.730142 49
2.7925 -1.44425 0.381213 7
1.63424 -0.849592 -0.0315452 48
2.08863 -1.08434 -0.20245 15
2.08266 -1.07944 -0.36646 14
2.07577 -1.07318 -0.530643 15
3.37787 -1.74 1.00743 48
3.37204 -1.74514 0.730619 49
2.76794 -1.43772 0.378171 8
1.63941 -0.855896 -0.0316761 46
2.07568 -1.08225 -0.201363 15
2.06762 -1.07626 -0.364111 14
2.05874 -1.06898 -0.526713 17
3.36841 -1.75825 1.00743 48
3.37591 -1.76959 0.733478 49
2.75572 -1.45037 0.377562 8
1.63475 -0.864754 -0.0316761 46
2.05456 -1.08499 -0.199841 15
2.04228 -1.07675 -0.360587 14
2.03566 -1.07106 -0.52222 17
3.37176 -1.76748 1.00937 48
3.37716 -1.77776 0.734432 49
2.74905 -1.45238 0.376954 8
1.63766 -0.86994 -0.0317634 46
2.02843 -1.07579 -0.197449 14
2.03165 -1.07571 -0.359021 14
2.02104 -1.06746 -0.518851 17
3.36917 -1.78791 1.01131 48
3.37028 -1.79598 0.734908 49
2.74141 -1.46676 0.376954 8
1.63324 -0.878217 -0.0317634 46
2.01838 -1.08405 -0.197014 14
2.01292 -1.07936 -0.356672 14
2.00252 -1.07116 -0.515482 18
3.36818 -1.79492 1.01196 48
3.37766 -1.80823 0.737291 49
2.74322 -1.47388 0.377562 10
1.6339 -0.882248 -0.031807 46
1.99673 -1.07697 -0.195057 14
1.9958 -1.07471 -0.353931 14
1.99205 -1.07006 -0.513236 18
3.36267 -1.81541 1.01325 48
3.37246 -1.82822 0.738244 49
2.74175 -1.49225 0.378475 10
1.6313 -0.89227 -0.0318506 45
1.98231 -1.08265 -0.194187 15
1.97043 -1.07489 -0.350408 15
1.97124 -1.07271 -0.509305 17
3.368 -1.82587 1.01583 48
3.37573 -1.83762 0.739674 48
2.72824 -1.4911 0.376954 10
1.63194 -0.896313 -0.0318943 45
1.96293 -1.07657 -0.192447 15
1.95554 -1.07124 -0.348059 14
1.95224 -1.06684 -0.504813 18
3.36686 -1.84812 1.01842 48
3.37252 -1.85881 0.741104 49
2.74213 -1.51735 0.379996 8
1.62722 -0.904846 -0.0318943 45
1.94637 -1.08081 -0.19136 15
1.93712 -1.07397 -0.34571 15
1.92955 -1.06765 -0.500321 18
3.36787 -1.85632 1.01971 48
3.37357 -1.86707 0.742057 49
2.76362 -1.53487 0.383343 8
1.62783 -0.908897 -0.0319379 45
1.93359 -1.07816 -0.190273 15
1.92444 -1.07137 -0.343752 15
1.91508 -1.06361 -0.496952 18
3.36265 -1.87569 1.021 48
3.36407 -1.88412 0.742057 49
2.75555 -1.54932 0.383343 2
1.62756 -0.919573 -0.0320252 45
1.91489 -1.08096 -0.188968 15
1.90588 -1.07418 -0.341403 15
1.89885 -1.06767 -0.494144 18
3.36569 -1.88509 1.02294 46
3.37115 -1.89658 0.74444 48
1.62813 -0.92364 -0.0320688 45
1.89998 -1.07696 -0.187663 17
1.89325 -1.07145 -0.339445 17
1.88849 -1.06621 -0.491898 20
3.35965 -1.90565 1.02423 48
3.36758 -1.91784 0.74587 49
1.62528 -0.933675 -0.0321124 45
1.88134 -1.07948 -0.186359 17
1.8767 -1.07556 -0.337488 17
1.86999 -1.06919 -0.488529 20
3.36682 -1.91747 1.02747 46
3.36849 -1.92614 0.746823 49
3.35983 -1.92739 0.47066 49
1.62582 -0.937754 -0.0321561 45
1.86649 -1.07533 -0.185054 18
1.8641 -1.0727 -0.33553 17
1.85543 -1.0652 -0.48516 21
3.36335 -1.93809 1.0294 46
3.3672 -1.94807 0.748729 49
3.36833 -1.94879 1.03199 46
2.41841 1.39678 -0.738447 10
2.41281 1.38178 0.632841 14
2.41508 1.38362 0.43432 14
2.41148 1.38211 0.240114 13
2.42479 1.38917 0.0481686 15
2.418 1.38416 -0.144666 15
2.42124 1.3849 -0.337707 14
2.41896 1.38248 -0.533782 13
2.44248 1.39367 -0.74362 7
2.42369 1.38239 0.635087 14
2.42822 1.38552 0.436271 14
2.42903 1.38653 0.241639 14
2.43397 1.38822 0.0482995 15
2.43343 1.38735 -0.145453 15
2.44091 1.39049 -0.340141 14
2.43417 1.38553 -0.536639 11
2.44935 1.39136 -0.744913 7
2.44175 1.37523 0.637895 17
2.44214 1.37599 0.437441 15
2.44518 1.37825 0.242511 18
2.45864 1.38526 0.0486486 25
2.45807 1.38438 -0.146504 23
2.45056 1.37847 -0.340445 18
2.45019 1.37715 -0.538544 10
2.4566 1.37851 -0.744913 7
2.45878 1.37973 0.641826 14
2.45961 1.38018 0.440173 14
2.46062 1.38129 0.243818 18
2.46759 1.38464 0.0487795 24
2.46702 1.38375 -0.146897 21
2.46812 1.38268 -0.342575 21
2.46973 1.38245 -0.542353 21
2.459 1.37422 -0.744913 7
2.48113 1.37466 0.645756 14
2.47545 1.37207 0.441734 14
2.4896 1.38046 0.245997 14
2.49011 1.38017 0.0490849 15
2.4786 1.37323 -0.14716 13
2.49053 1.37814 -0.344704 14
2.49412 1.37899 -0.546162 11
2.46194 1.359 -0.74362 7
2.48542 1.37194 0.646318 13
2.4949 1.37772 0.444856 14
2.49637 1.37851 0.246433 13
2.49909 1.37945 0.0492158 13
2.49411 1.37613 -0.147948 13
2.49921 1.37781 -0.345617 14
2.51158 1.38292 -0.549495 11
2.47066 1.35819 -0.74556 7
2.50968 1.36822 0.65081 13
2.51292 1.37054 0.446807 14
2.52081 1.3754 0.248176 14
2.5214 1.37515 0.0495212 14
2.51201 1.36946 -0.148604 14
2.51729 1.37064 -0.347138 14
2.53364 1.37839 -0.552828 13
2.47325 1.34336 -0.744267 7
2.52682 1.37241 0.654741 13
2.53484 1.37675 0.450319 13
2.52539 1.37218 0.248394 11
2.53478 1.37671 0.0497394 14
2.52537 1.37103 -0.14926 13
2.5415 1.37806 -0.350181 13
2.55115 1.38214 -0.556162 14
2.48197 1.34249 -0.746207 7
2.54709 1.36562 0.65811 13
2.55072 1.36812 0.45188 14
2.55449 1.37071 0.250573 13
2.55982 1.37241 0.0500884 14
2.55476 1.36912 -0.150573 13
2.564 1.37293 -0.35231 14
2.57591 1.37757 -0.559971 14
2.48493 1.32676 -0.744913 7
2.56452 1.3692 0.662041 14
2.56642 1.3702 0.454221 14
2.5725 1.374 0.252098 13
2.57324 1.37382 0.0503066 14
2.57941 1.37596 -0.151886 13
2.58196 1.37616 -0.35444 14
2.58698 1.37768 -0.561876 14
2.48534 1.32086 -0.744267 7
2.58314 1.36007 0.664848 13
2.58933 1.36389 0.456953 13
2.59556 1.36774 0.253623 13
2.59857 1.36874 0.0506556 14
2.6045 1.37128 -0.152936 13
2.60279 1.36864 -0.356265 14
2.61419 1.37348 -0.566161 14
2.49673 1.30963 -0.74556 7
2.61549 1.37184 0.67271 14
2.60678 1.36785 0.459684 13
2.61339 1.3713 0.255148 13
2.61203 1.37 0.0508738 13
2.62237 1.37484 -0.153855 14
2.62032 1.37261 -0.358395 14
2.62746 1.3746 -0.568542 14
2.50115 1.30639 -0.746207 7
2.63562 1.36484 0.676079 14
2.64022 1.3678 0.464367 13
2.63578 1.36607 0.256674 13
2.64557 1.37055 0.0513973 13
2.64703 1.37072 -0.154905 13
2.64952 1.37026 -0.361437 14
2.66055 1.37479 -0.574256 14
2.51203 1.29593 -0.7475 4
2.65292 1.36851 0.68001 14
2.66016 1.37223 0.467489 14
2.66251 1.37402 0.25907 13
2.66796 1.37624 0.05179 13
2.66718 1.37525 -0.155955 13
2.66515 1.37244 -0.363263 14
2.68041 1.37912 -0.578065 13
2.51214 1.29044 -0.746853 4
2.67742 1.36344 0.684502 13
2.68248 1.36659 0.47022 13
2.68274 1.3673 0.260378 13
2.69048 1.37065 0.0520954 14
2.68746 1.36852 -0.156743 14
2.68755 1.3668 -0.365393 14
2.69611 1.36997 -0.57997 13
2.52725 1.28207 -0.74944 4
2.69694 1.36804 0.688994 13
2.69784 1.36908 0.472562 13
2.7029 1.37163 0.262121 13
2.70402 1.3716 0.0523136 13
2.69875 1.36834 -0.157268 13
2.71404 1.3749 -0.368739 13
2.72259 1.37744 -0.585208 13
2.52086 1.27331 -0.746853 4
2.72585 1.3648 0.694609 13
2.72705 1.36598 0.476464 13
2.72985 1.36796 0.264082 13
2.72657 1.36573 0.052619 13
2.73243 1.36806 -0.158844 13
2.73897 1.36954 -0.371173 14
2.7449 1.37132 -0.588541 13
2.5316 1.26269 -0.748146 4
2.74326 1.36812 0.69854 13
2.74049 1.36672 0.478415 13
2.74561 1.36986 0.265389 14
2.75133 1.37211 0.0530553 14
2.74823 1.36997 -0.159631 13
2.7569 1.37249 -0.373303 14
2.76268 1.37417 -0.591874 13
2.5338 1.25827 -0.748146 4
2.77467 1.36507 0.704717 13
2.7742 1.36543 0.483098 13
2.77285 1.36536 0.26735 14
2.77193 1.3643 0.0533171 13
2.77777 1.36657 -0.160944 13
2.7841 1.36788 -0.376041 13
2.78967 1.36941 -0.59616 13
2.53818 1.24392 -0.7475 4
2.78775 1.36607 0.707524 13
2.78988 1.3671 0.485439 13
2.79089 1.36818 0.268875 13
2.79003 1.36715 0.0536225 14
2.79585 1.3694 -0.161863 13
2.80432 1.37173 -0.378475 14
2.81411 1.3753 -0.600921 13
2.54252 1.24055 -0.748146 4
2.81704 1.36156 0.71314 13
2.81702 1.36214 0.488951 13
2.82044 1.36439 0.271054 13
2.8219 1.36449 0.0541025 13
2.82345 1.36402 -0.163044 13
2.83382 1.36781 -0.381517 13
2.83675 1.368 -0.604254 13
2.54028 1.22303 -0.74556 4
2.83698 1.36508 0.717632 13
2.83942 1.36685 0.492463 13
2.84077 1.3681 0.272797 13
2.84254 1.36773 0.0544515 13
2.84608 1.36882 -0.164226 13
2.85633 1.37252 -0.384255 13
2.85683 1.37154 -0.608064 13
2.5448 1.21919 -0.746207 4
2.86634 1.36014 0.723247 13
2.86908 1.36205 0.496365 13
2.86388 1.36018 0.274323 14
2.86322 1.35925 0.0547133 13
2.869 1.36138 -0.165145 13
2.8839 1.3666 -0.386994 13
2.88862 1.36761 -0.613302 13
2.54678 1.20379 -0.744913 4
2.87728 1.3598 0.725493 13
2.88039 1.36125 0.497926 13
2.88427 1.36369 0.276066 13
2.87915 1.36065 0.0549751 13
2.90298 1.37129 -0.166983 13
2.90873 1.37214 -0.390036 13
2.90876 1.37093 -0.617111 13
2.55325 1.2014 -0.746207 4
2.90889 1.35552 0.73167 13
2.90762 1.35554 0.501438 13
2.90943 1.35698 0.277809 13
2.92823 1.3645 -0.168033 13
2.93613 1.36631 -0.392774 13
2.93148 1.36291 -0.620444 13
2.5595 1.18801 -0.746207 4
2.93312 1.3612 0.737285 13
2.93439 1.3624 0.505731 13
2.95099 1.36883 -0.169214 13
2.95403 1.36899 -0.394904 13
2.95613 1.36809 -0.625206 13
2.56377 1.18456 -0.746853 4
2.95128 1.35088 0.740093 13
2.98083 1.36374 -0.170527 13
2.98148 1.36278 -0.397642 13
2.98758 1.36432 -0.630444 13
2.57193 1.17257 -0.7475 4
2.99911 1.36577 -0.171446 13
3.00418 1.36682 -0.40038 13
3.01678 1.37128 -0.636158 13
2.56977 1.16563 -0.746207 4
3.029 1.36026 -0.172759 13
3.04097 1.36373 -0.404335 13
3.03759 1.36095 -0.639015 14
2.58025 1.15413 -0.7475 4
3.05644 1.36617 -0.174203 13
3.05897 1.36603 -0.406465 13
3.06238 1.36563 -0.643776 13
2.57343 1.1457 -0.744913 4
1.84076 0.812619 0.0345121 23
3.08412 1.3592 -0.175384 13
3.08653 1.35898 -0.409203 13
3.09846 1.36295 -0.649966 13
2.58362 1.1346 -0.746207 4
1.86279 0.818832 0.174965 24
1.84232 0.809084 0.0345121 25
3.11164 1.36484 -0.176828 13
3.11163 1.36354 -0.412246 13
3.11433 1.36344 -0.652823 13
2.57694 1.12578 -0.74362 4
1.88802 0.817369 0.319594 25
1.86262 0.806765 0.174529 23
1.84424 0.798435 0.0344685 30
3.13937 1.35744 -0.17801 13
3.1463 1.35848 -0.415896 13
3.15096 1.35919 -0.659014 13
2.58724 1.11418 -0.744913 4
1.88457 0.811991 0.464945 45
1.88477 0.81245 0.318813 15
1.84333 0.794227 0.0344249 28
3.17385 1.36576 -0.179848 13
3.18035 1.36724 -0.420156 13
3.17814 1.36433 -0.664251 11
2.58696 1.10871 -0.744267 4
1.8888 0.802113 0.464945 48
1.89581 0.805463 0.319984 18
1.84733 0.784887 0.0344249 28
3.19705 1.35594 -0.180767 13
3.20575 1.35831 -0.42259 13
3.20083 1.35492 -0.667584 11
2.59476 1.09654 -0.744913 4
1.88795 0.797868 0.464383 46
1.90632 0.805993 0.321545 13
1.84653 0.780368 0.0343812 30
3.23391 1.3649 -0.182736 13
3.23098 1.36235 -0.425632 13
3.23486 1.36265 -0.674251 13
2.58796 1.08782 -0.742327 4
1.89674 0.789511 0.465506 45
1.91749 0.79851 0.322715 13
1.8529 0.771648 0.0344249 28
3.26177 1.35657 -0.183917 13
3.26123 1.35435 -0.428675 13
3.26259 1.35359 -0.678536 11
2.60254 1.07794 -0.744913 4
1.89573 0.7856 0.464945 44
1.94626 0.806488 0.327398 13
1.8681 0.774145 0.0346867 20
3.2872 1.36041 -0.18523 13
3.29111 1.36002 -0.432325 13
3.29217 1.35912 -0.68425 11
2.59772 1.07064 -0.742973 4
1.90433 0.777501 0.466068 44
1.96175 0.801288 0.329349 14
3.30871 1.35108 0.309621 13
1.89514 0.774117 0.035123 14
3.32872 1.35789 -0.187199 13
3.33243 1.35737 -0.436889 13
3.32857 1.35445 -0.69044 11
2.59863 1.05567 -0.74168 7
1.90555 0.774509 0.466068 42
2.00434 0.814571 0.336373 25
3.33183 1.35374 0.311582 13
1.90575 0.774566 0.0352975 11
3.34728 1.35865 -0.188118 13
3.36469 1.36366 -0.440844 13
3.3605 1.3606 -0.696631 13
2.61167 1.05565 -0.744913 7
1.92102 0.768705 0.468875 37
2.01775 0.80773 0.337934 38
1.96317 0.785909 0.036301 14
3.39609 1.35777 -0.190481 20
3.39023 1.35338 -0.443278 14
3.39266 1.35298 -0.701868 13
1.92675 0.767487 0.469998 42
2.01227 0.801471 0.336764 30
1.94828 0.776017 0.0359956 24
3.40541 1.3546 -0.190875 10
3.37875 1.34197 -0.441453 20
3.40186 1.34977 -0.703297 11
1.93315 0.757939 0.47056 42
1.98885 0.780121 0.332081 23
1.94766 0.763983 0.0359083 30
3.44059 1.34707 -0.19245 31
3.43426 1.34322 -0.447842 34
3.41346 1.33372 -0.704249 14
1.93674 0.755447 0.471121 42
1.99021 0.776648 0.332081 34
1.93515 0.754802 0.0356465 31
3.44294 1.34106 -0.19245 55
3.43891 1.33812 -0.448146 55
3.41807 1.32865 -0.704725 23
1.96354 0.753672 0.476737 49
1.98516 0.762334 0.33052 39
1.93674 0.743765 0.0356029 30
3.44525 1.32123 -0.192188 55
3.44147 1.31772 -0.447537 53
3.41374 1.30576 -0.702345 14
1.96473 0.750586 0.476737 46
1.97943 0.756575 0.329349 45
1.93336 0.738602 0.0355156 32
3.43822 1.31166 -0.191662 55
3.43658 1.30967 -0.446625 55
3.41143 1.29806 -0.701392 13
1.96635 0.739433 0.476175 45
1.98105 0.745332 0.328959 39
1.93931 0.730034 0.178233 42
1.92772 0.725293 0.0353411 27
3.44106 1.29079 -0.44632 53
3.41336 1.27905 -0.70044 13
1.96307 0.734296 0.475052 42
1.97541 0.739281 0.327788 37
1.94059 0.726649 0.178233 39
1.92442 0.719842 0.0352539 35
3.43401 1.28131 -0.445104 48
1.95787 0.720306 0.472806 39
1.97474 0.72688 0.327008 37
1.93748 0.713561 0.17758 37
1.92112 0.70717 0.035123 39
1.959 0.717229 0.472806 38
1.96893 0.721233 0.325837 37
1.9317 0.707613 0.176926 34
1.92236 0.703816 0.035123 38
1.98792 0.725424 -0.403789 32
1.96043 0.706138 0.472244 39
1.96803 0.709243 0.325057 38
1.93292 0.696984 0.176708 38
2.42137 1.38906 0.338011 14
1.91413 0.689848 0.0349048 35
2.41745 1.38458 0.144186 14
2.42301 1.38666 -0.048125 14
2.42727 1.38909 -0.241157 14
1.99157 0.715353 -0.403789 46
2.41861 1.38633 -0.436542 14
2.40848 1.3838 -0.63228 14
1.95937 0.701896 0.471683 41
1.96461 0.704144 0.324276 41
2.4384 1.39713 0.539028 14
1.93413 0.693609 0.176708 44
2.4281 1.3873 0.338619 14
1.92016 0.687854 0.0349921 39
2.43503 1.38904 0.145101 14
2.44278 1.39236 -0.0484741 15
1.9909 0.711973 -0.254953 17
2.44266 1.39228 -0.242462 14
1.98588 0.709404 -0.40236 46
2.43388 1.38947 -0.438891 14
2.42991 1.39052 -0.637333 14
1.96314 0.691284 0.471683 42
2.43842 1.38578 0.741197 13
1.96606 0.692685 0.323886 41
2.45635 1.3904 0.541411 14
1.94255 0.684787 0.177144 45
2.4442 1.37903 0.339836 14
1.91195 0.673646 0.0347739 41
2.44251 1.37585 0.145101 17
1.9286 0.679123 -0.105677 38
2.45898 1.38404 -0.0486486 20
1.97834 0.695442 -0.252824 17
2.46293 1.38682 -0.243767 17
1.98274 0.696214 -0.400932 45
2.4564 1.38479 -0.441631 14
2.44375 1.38096 -0.639018 14
1.95962 0.686592 0.47056 44
2.45553 1.38988 0.74572 14
1.96261 0.687623 0.323106 39
2.46518 1.38974 0.542841 18
1.93669 0.678929 0.17649 44
2.45525 1.37964 0.341053 13
1.91076 0.669483 0.0347303 41
2.46231 1.38138 0.146148 17
1.93214 0.676579 -0.105808 41
2.46357 1.38097 -0.0486922 21
1.96315 0.686267 -0.250694 38
2.46969 1.38496 -0.244202 20
1.98395 0.692752 -0.400932 46
2.47172 1.38778 -0.44398 30
2.46312 1.38628 -0.64351 21
1.9587 0.674396 0.469437 42
2.4691 1.38055 0.747659 14
1.96385 0.676534 0.322715 41
2.47671 1.37921 0.543794 23
1.94022 0.668779 0.17649 44
2.46894 1.37039 0.341966 14
1.91424 0.659469 0.0347303 46
2.48696 1.37818 0.147195 13
1.93093 0.664831 -0.105546 44
2.49043 1.37898 -0.0490849 13
1.96437 0.675173 -0.25039 42
2.49432 1.3817 -0.245941 13
1.9829 0.680764 -0.399979 48
2.48519 1.37886 -0.445155 13
2.47886 1.37812 -0.645756 13
1.95745 0.670531 0.468875 42
2.47572 1.37859 0.748951 14
1.9579 0.671052 0.321545 42
2.49626 1.38443 0.547607 13
1.93903 0.664586 0.176272 45
2.48411 1.37374 0.343792 14
1.91539 0.656127 0.0347303 48
2.49786 1.37912 0.147718 13
1.92736 0.659846 -0.105283 41
2.49502 1.37585 -0.0491285 14
1.96308 0.671286 -0.250086 41
2.50108 1.37976 -0.246376 13
1.9748 0.674137 -0.398075 49
2.5027 1.3829 -0.447896 14
2.49592 1.38251 -0.649687 13
1.96094 0.660272 0.468875 42
2.49535 1.37305 0.752828 13
1.9567 0.659217 0.320764 42
2.50324 1.37178 0.547607 13
1.94237 0.654763 0.176272 46
2.50215 1.36668 0.345313 14
1.91631 0.645628 0.0346867 49
2.5138 1.37081 0.148242 13
1.93553 0.651334 -0.105546 39
2.5195 1.3728 -0.0494776 14
1.96656 0.660998 -0.250086 38
2.52575 1.3762 -0.248116 14
1.97586 0.663354 -0.397598 51
2.52507 1.37808 -0.450636 14
2.00015 0.669959 -0.555452 46
2.51594 1.37646 -0.653056 13
1.95746 0.655305 0.467752 42
2.51467 1.37801 0.757998 14
1.95785 0.655801 0.320764 44
2.52524 1.37758 0.551896 13
1.94351 0.651372 0.176272 46
2.50888 1.36469 0.345921 13
1.91518 0.641156 0.034643 49
2.53373 1.37598 0.149288 13
1.93192 0.646374 -0.105283 38
2.53945 1.37796 -0.0498266 14
1.96301 0.655995 -0.249477 38
2.54565 1.38132 -0.249855 14
1.97003 0.657578 -0.39617 52
2.54047 1.38077 -0.452985 14
2.00602 0.66764 -0.556745 53
2.52902 1.37791 -0.655864 13
1.9633 0.645464 0.468314 44
2.53057 1.36899 0.760583 13
1.95902 0.644429 0.320374 45
2.54969 1.37368 0.555709 13
1.94464 0.64007 0.176055 45
2.54463 1.3664 0.349876 13
1.92563 0.633457 0.0347739 49
2.55433 1.36935 0.150073 13
1.93054 0.634694 -0.105021 42
2.56008 1.37131 -0.0500884 13
1.95238 0.640731 -0.247652 38
2.566 1.37506 -0.25116 14
1.97356 0.646909 -0.39617 51
2.56288 1.37565 -0.455726 14
2.00031 0.654131 -0.554159 52
2.55145 1.37231 -0.659795 13
1.95968 0.640868 0.467191 44
2.55208 1.37492 0.766399 13
1.95769 0.640584 0.319984 45
2.56288 1.37505 0.558092 13
1.94812 0.637448 0.176272 46
2.53584 1.35653 0.348355 10
1.91961 0.62777 0.034643 49
2.57407 1.37478 0.15112 13
1.92927 0.630549 -0.104889 45
2.5823 1.37746 -0.0504811 14
1.95338 0.637664 -0.247652 39
2.58377 1.37881 -0.252682 14
1.97935 0.644981 -0.397122 49
2.58051 1.37935 -0.458467 14
2.00144 0.650639 -0.554159 53
2.57505 1.37984 -0.66541 13
1.95836 0.629112 0.466068 44
2.5803 1.37336 0.772861 13
1.96336 0.631079 0.320374 44
2.58931 1.37244 0.562381 13
1.95369 0.62834 0.17649 46
2.59333 1.36998 0.355353 13
1.92514 0.618809 0.0346867 49
2.59448 1.36829 0.151905 14
1.93006 0.620014 -0.104758 45
2.60029 1.37021 -0.0506992 14
1.95197 0.625915 -0.247043 42
2.60832 1.37503 -0.254422 14
1.9896 0.637196 -0.398551 45
2.59861 1.3716 -0.460424 14
2.00241 0.639767 -0.553512 53
2.5973 1.37434 -0.669341 13
1.96167 0.626774 0.466629 45
2.58909 1.37226 0.774799 13
1.96682 0.628402 0.320764 41
2.60471 1.37481 0.565241 13
1.95004 0.623416 0.176055 46
2.59352 1.36429 0.355048 14
1.93098 0.616966 0.0347739 48
2.61674 1.37424 0.153083 13
1.93352 0.617403 -0.104889 39
2.62037 1.37499 -0.0510483 14
1.95306 0.622507 -0.247043 44
2.62394 1.37745 -0.255727 13
1.99305 0.634465 -0.399027 42
2.61847 1.37628 -0.463556 14
2.00122 0.635542 -0.552865 56
2.62123 1.3812 -0.674956 13
1.96282 0.615082 0.466068 45
2.61358 1.36722 0.779969 13
1.96312 0.615539 0.319594 39
2.62298 1.36639 0.567624 13
1.95814 0.614344 0.17649 45
2.62067 1.36056 0.357787 13
1.93191 0.605763 0.0347303 46
2.63299 1.36467 0.153606 13
1.94636 0.609912 -0.105414 38
2.64107 1.36771 -0.0513101 14
1.95403 0.611192 -0.246739 44
2.64461 1.37012 -0.257031 13
2.00114 0.625133 -0.399979 39
2.64558 1.37236 -0.46708 14
2.00694 0.625422 -0.553512 58
2.63946 1.37263 -0.677763 13
1.96145 0.611275 0.465506 42
2.63737 1.37385 0.786431 13
1.96183 0.611379 0.319203 39
2.64495 1.37201 0.571913 13
1.95683 0.610186 0.176272 45
2.64506 1.36742 0.360829 13
1.93773 0.603875 0.0348176 45
2.6531 1.36926 0.154653 13
1.95219 0.607995 -0.105677 39
2.65678 1.37 -0.0515719 14
1.95983 0.609251 -0.247347 45
2.67132 1.37811 -0.259423 14
2.01161 0.624544 -0.401884 39
2.66332 1.37569 -0.469821 14
2.00572 0.621205 -0.552865 63
2.65266 1.37364 -0.680571 13
1.9624 0.599943 0.464945 42
2.6574 1.36667 0.790308 13
1.965 0.601098 0.319203 42
2.67611 1.37048 0.577156 13
1.96238 0.600659 0.17649 44
2.66985 1.3626 0.363263 13
1.94326 0.59445 0.0348612 45
2.68024 1.36559 0.15583 13
1.9649 0.600679 -0.106202 38
2.69062 1.36972 -0.0520954 14
2.69846 1.3743 -0.261381 14
2.69223 1.37345 -0.473736 14
2.67499 1.36752 -0.684502 13
1.968 0.598273 0.466068 38
2.67481 1.36976 0.794832 13
1.96595 0.598011 0.319203 42
2.6916 1.37252 0.580015 13
1.96581 0.597956 0.176708 44
2.69409 1.36969 0.366305 13
1.95147 0.593234 0.0349921 45
2.70685 1.37384 0.15727 13
1.96594 0.597248 -0.106202 38
2.7086 1.37296 -0.0524008 13
2.71639 1.3775 -0.262903 13
2.71002 1.3766 -0.476476 13
2.69232 1.37108 -0.688432 13
1.97811 0.590045 0.467752 38
2.69679 1.36385 0.799355 13
1.97142 0.588414 0.319594 42
2.71823 1.36885 0.584304 13
1.96642 0.587288 0.17649 44
2.71674 1.36338 0.368435 13
1.95684 0.584062 0.0350357 45
2.72962 1.3675 0.158185 13
1.97622 0.589081 -0.106596 32
2.73339 1.36821 -0.0527499 13
2.74359 1.37332 -0.26486 13
2.73704 1.37239 -0.48 14
2.72773 1.37123 -0.695732 13
1.98381 0.587973 0.468875 39
2.71856 1.36895 0.805171 13
1.9677 0.583571 0.318813 44
2.7362 1.37135 0.587641 13
1.96983 0.584562 0.176708 44
2.73686 1.36754 0.370869 13
1.96276 0.581722 0.035123 44
2.74986 1.37168 0.159232 14
1.9964 0.59129 -0.107646 35
2.75365 1.37238 -0.0530989 13
2.75935 1.37522 -0.266165 14
2.75488 1.37535 -0.482741 14
2.74318 1.37303 -0.699102 13
1.98697 0.577231 0.468875 41
2.74105 1.36177 0.809694 13
1.96846 0.572229 0.318423 44
2.75873 1.36464 0.590977 13
1.97297 0.573895 0.176708 42
2.76423 1.36261 0.373607 13
1.96817 0.572133 0.0351666 44
2.77291 1.36452 0.160148 13
2.03544 0.591252 -0.109615 35
2.77897 1.36631 -0.053448 13
2.78661 1.37068 -0.268122 13
2.78441 1.37137 -0.486656 13
2.77021 1.36791 -0.704155 13
1.99255 0.575458 0.469998 41
2.75857 1.3645 0.814218 13
1.97183 0.569476 0.318813 42
2.7765 1.36744 0.594313 13
1.98114 0.57252 0.177362 42
2.77996 1.36437 0.375432 13
1.96917 0.568697 0.0351666 44
2.78873 1.36629 0.160933 13
2.02447 0.584245 -0.108959 27
2.79705 1.36918 -0.0537534 13
2.26312 0.65167 -0.284465 14
2.80464 1.3735 -0.269644 13
2.80452 1.37523 -0.489788 14
2.78352 1.36847 -0.706963 13
2.00033 0.565992 0.471121 39
2.78736 1.36067 0.82068 13
1.97479 0.559144 0.318813 42
2.80127 1.36149 0.598126 13
1.98172 0.561462 0.177144 42
2.80492 1.35847 0.377866 13
1.97453 0.559058 0.0352102 44
2.81831 1.36257 0.162241 13
2.13803 0.604829 -0.114997 34
2.82668 1.36542 -0.0541897 13
2.25695 0.637121 -0.283248 24
2.8342 1.36967 -0.271818 13
2.36511 0.6667 -0.469976 38
2.83144 1.37073 -0.493312 13
2.4468 0.687853 -0.671198 42
2.80598 1.36134 -0.710894 13
2.00356 0.563507 0.471683 38
2.81361 1.36745 0.827788 13
1.97328 0.555374 0.318423 41
2.82351 1.36625 0.602415 13
1.98269 0.558002 0.177144 41
2.82715 1.3638 0.380605 13
1.98031 0.556961 0.0352975 42
2.83842 1.36683 0.163288 13
2.13908 0.601096 -0.114997 41
2.85156 1.37135 -0.054626 14
2.25078 0.631568 -0.282335 39
2.85453 1.37339 -0.273558 14
2.36154 0.66125 -0.469023 31
2.85383 1.37547 -0.496835 13
2.43636 0.68034 -0.667965 11
2.83003 1.36756 -0.716509 13
2.00883 0.553655 0.472244 34
2.83572 1.36053 0.832312 13
1.98331 0.546999 0.319594 38
2.85694 1.36468 0.608134 13
1.99029 0.549282 0.17758 42
2.85888 1.36075 0.383951 13
1.98552 0.547594 0.0353411 42
2.86582 1.36163 0.164466 13
2.14701 0.59121 -0.11526 44
2.87652 1.36551 -0.0549751 13
2.25166 0.619118 -0.282031 39
2.88417 1.36914 -0.275733 13
2.36723 0.649937 -0.469499 30
2.88105 1.37008 -0.500359 13
2.4491 0.670546 -0.670551 11
2.86132 1.3643 -0.722686 11
2.00979 0.550148 0.472244 34
2.85551 1.36393 0.837481 13
1.98664 0.544187 0.319984 38
2.87949 1.3687 0.612423 13
1.99125 0.545807 0.17758 42
2.87022 1.36002 0.385168 13
1.98415 0.543123 0.0352975 44
2.88173 1.36305 0.165251 13
2.14563 0.586805 -0.115129 44
2.89019 1.36584 -0.0551932 13
2.23119 0.609317 -0.279293 35
2.9023 1.37157 -0.277255 13
2.37546 0.647738 -0.470928 31
2.89458 1.37035 -0.502316 13
2.44339 0.663947 -0.668611 13
2.89009 1.37188 -0.729424 11
2.02686 0.543039 0.475614 34
2.88032 1.35672 0.842651 13
1.99671 0.535344 0.321155 41
2.89994 1.35988 0.615283 13
1.99658 0.535669 0.177798 39
2.9 1.35501 0.388211 13
1.99904 0.535955 0.0355156 42
2.90489 1.35485 0.166167 13
2.13903 0.572985 -0.114604 45
2.91565 1.35866 -0.0555423 13
2.23446 0.597236 -0.279293 28
2.92975 1.36586 -0.279212 13
2.92184 1.36461 -0.50584 13
2.46783 0.656722 -0.674431 8
2.90408 1.35933 -0.731109 10
2.03242 0.541105 0.476737 34
2.9089 1.36404 0.850405 13
1.99278 0.530939 0.320374 39
2.91787 1.36211 0.618619 13
2.00233 0.533463 0.178233 38
1.99756 0.531823 0.035472 41
2.14002 0.569251 -0.114604 46
2.20901 0.586734 -0.275946 23
2.96147 1.37442 -0.282039 13
2.94659 1.36995 -0.509755 13
2.48532 0.656723 -0.678957 7
2.9349 1.36819 -0.738408 7
2.03523 0.530456 0.476737 32
2.93986 1.36049 0.857514 13
2.00509 0.522984 0.321935 38
2.94477 1.35659 0.622909 13
2.005 0.523322 0.178233 38
2.00506 0.522964 0.0355593 41
2.14056 0.55741 -0.114472 41
2.20484 0.573291 -0.275033 37
2.99126 1.36929 -0.284213 13
2.97839 1.36586 -0.514062 13
2.94866 1.35587 -0.740093 7
2.04794 0.529946 0.479544 32
2.95976 1.36347 0.862683 13
2.00839 0.520101 0.322325 37
2.97635 1.36427 0.629104 13
2.01073 0.521068 0.178669 37
1.86494 0.850129 0.247043 13
2.01333 0.520988 0.0356902 42
1.8404 0.837339 0.104149 14
2.13669 0.552426 -0.11421 35
1.86562 0.848108 -0.0351666 11
2.21305 0.571298 -0.275946 35
3.01403 1.37339 -0.28617 13
2.99873 1.36889 -0.517194 13
2.95987 1.35479 -0.742339 7
2.06259 0.521838 0.482352 31
2.98248 1.35445 0.867207 11
2.02075 0.511645 0.323886 35
2.01835 0.511401 0.179105 37
1.87177 0.841049 0.247347 15
2.02087 0.511663 0.0357774 44
1.83807 0.824288 0.103756 17
2.14198 0.541842 -0.114341 34
1.85423 0.83081 -0.0348612 13
2.21851 0.559922 -0.27625 34
3.04161 1.36681 -0.288127 13
3.0241 1.36078 -0.520326 13
2.96938 1.33976 -0.742901 7
2.06341 0.518597 0.482352 31
3.00023 1.35623 0.87173 13
2.02404 0.508717 0.324276 34
2.0289 0.510301 0.179977 35
1.86871 0.835744 0.246739 15
2.01934 0.507527 0.0357338 44
1.83951 0.821079 0.103756 17
2.1405 0.537496 -0.11421 41
1.8534 0.826549 -0.0348176 13
2.2243 0.557252 -0.276859 34
3.05989 1.36864 -0.28965 13
3.29824 0.824396 -0.652823 11
3.04673 1.36461 -0.52385 13
2.96283 1.33057 -0.740655 7
2.08038 0.510902 0.485721 30
2.02667 0.498113 0.324276 32
1.92121 0.850485 0.401292 11
2.03397 0.500264 0.180194 34
1.8708 0.824941 0.246435 23
2.02925 0.498732 0.0358647 44
1.8415 0.810425 0.103625 23
2.14086 0.525687 -0.114079 44
1.84627 0.811775 -0.0345994 14
2.22719 0.545598 -0.276859 34
3.08296 1.35965 -0.291172 13
3.29297 0.804788 -0.650919 10
3.08069 1.36119 -0.528548 13
2.97421 1.31702 -0.741778 7
2.08828 0.509361 0.487406 28
2.03705 0.497265 0.325837 31
1.9227 0.847131 0.401292 13
2.0421 0.49848 0.180848 32
1.87209 0.822002 0.246435 23
2.03255 0.49578 0.0359083 42
1.8382 0.805516 0.103364 24
2.1442 0.52254 -0.11421 44
1.8454 0.807544 -0.0345558 20
2.22804 0.542099 -0.276859 35
3.11496 1.36733 -0.293999 13
3.29914 0.800195 -0.651871 10
3.10791 1.36678 -0.532855 13
2.98073 1.31432 -0.742901 7
1.92189 0.839108 0.551859 24
2.04924 0.488878 0.327398 30
2.05186 0.489868 0.181502 32
1.87864 0.813179 0.246739 24
2.03746 0.486065 0.035952 38
2.14691 0.511306 -0.11421 42
1.84717 0.797198 -0.0345121 17
2.23568 0.531571 -0.277467 34
3.14035 1.35894 -0.295738 13
3.37719 0.801014 -0.666632 11
3.1354 1.35935 -0.536378 13
2.98087 1.29577 -0.741216 7
1.90344 0.827044 0.546043 37
2.05009 0.4853 0.327398 30
2.05756 0.487431 0.181938 32
1.87778 0.808912 0.246435 20
2.04569 0.483873 0.0360828 34
2.15266 0.508703 -0.114472 41
2.23419 0.5271 -0.277163 34
3.16786 1.36433 -0.29813 13
3.38575 0.796802 -0.668061 11
3.15589 1.36173 -0.539511 13
2.98089 1.28959 -0.740655 4
1.90789 0.816733 0.546043 37
1.91711 0.816808 0.397956 28
2.06745 0.47797 0.182591 30
2.0482 0.473156 0.0360828 30
2.16015 0.498545 -0.114735 39
3.20246 1.35944 -0.30074 13
3.40675 0.78231 -0.671394 11
3.19273 1.35723 -0.5446 13
2.99455 1.27632 -0.742339 7
1.90265 0.810547 0.544104 44
1.92079 0.814424 0.398433 31
2.06364 0.472921 0.0363446 28
2.16832 0.496441 -0.115129 39
3.22775 1.36357 -0.302914 13
3.41051 0.776908 -0.67187 11
3.22464 1.36421 -0.54969 13
2.99677 1.27109 -0.742339 4
1.90228 0.799025 0.542812 45
1.92715 0.805643 0.398909 32
2.06845 0.463014 0.0363883 23
2.17333 0.485623 -0.11526 39
3.26472 1.35913 -0.305741 13
3.42637 0.762296 -0.674251 11
3.25656 1.35836 -0.553997 13
2.75244 0.610644 -0.74556 4
3.00541 1.25685 -0.742901 4
1.90367 0.795704 0.542812 49
1.93775 0.805732 0.400816 31
2.09618 0.464979 0.0368682 18
2.17661 0.482368 -0.115391 39
3.29698 1.36586 -0.308568 13
3.43489 0.757898 -0.675679 11
3.284 1.36312 -0.558303 13
2.74889 0.604323 -0.744267 3
3.00086 1.24879 -0.741216 7
2.3558 0.509062 0.547489 24
1.90572 0.784468 0.542166 51
1.93287 0.791832 0.398909 31
2.18155 0.471491 -0.115523 38
3.32253 1.35614 -0.310308 13
3.45574 0.742906 -0.679012 11
3.31393 1.35528 -0.562219 13
2.75202 0.589922 -0.744267 3
3.01433 1.23531 -0.742901 7
2.35898 0.50587 0.548051 30
1.91378 0.783902 0.544104 53
1.94787 0.794047 0.401769 27
3.3464 1.35844 -0.062436 13
3.36179 1.36538 -0.313787 13
3.46183 0.737895 -0.679965 13
3.34372 1.3607 -0.566917 13
2.75304 0.585118 -0.744267 3
2.36398 0.494009 0.548612 35
1.91325 0.772387 0.542812 53
3.48832 0.728906 0.55763 55
1.95869 0.786939 0.403199 21
3.36947 1.348 -0.0627414 13
3.49842 0.728456 -0.433847 53
3.39893 1.35982 -0.316614 14
3.47273 0.72186 -0.681393 13
3.38516 1.357 -0.57279 14
2.76543 0.573132 -0.746853 4
2.36961 0.490868 0.549735 34
1.91683 0.769952 0.543458 52
3.48475 0.721816 0.55685 55
1.97386 0.788671 0.406058 25
3.48489 0.722467 0.308313 53
3.39503 1.35139 -0.0631777 14
3.49239 0.720848 -0.432934 53
3.41518 1.35943 -0.317919 11
3.47639 0.716292 -0.681869 14
3.39669 1.35476 -0.574356 10
2.75942 0.566368 -0.744913 4
1.91873 0.758677 0.542812 51
3.49103 0.703438 0.55724 55
1.98481 0.781037 0.407488 25
3.48631 0.70311 0.308096 53
3.4209 1.34033 -0.0635268 37
3.49868 0.702429 -0.433238 53
3.43616 1.34701 -0.319223 37
3.4754 0.69651 -0.680917 13
3.4313 1.34783 -0.579054 23
2.76235 0.551912 -0.744913 4
1.92454 0.757105 0.544104 49
3.48002 0.695539 0.555289 53
2.00671 0.78567 0.411777 27
3.48264 0.69605 0.30766 53
3.49004 0.694998 -0.432021 53
3.44314 1.34282 -0.319658 53
3.4718 0.689489 -0.679965 11
3.44514 1.34635 -0.581011 53
2.76331 0.54709 -0.744913 4
1.93735 0.750867 0.546689 55
3.49089 0.678719 0.55646 55
1.99236 0.768397 0.407965 42
3.48857 0.678888 0.307878 53
1.97354 0.757959 0.254953 37
3.48418 0.677405 0.0613452 53
1.94165 0.744095 0.107158 32
3.49119 0.676243 -0.431717 53
3.43618 1.3194 -0.318354 51
3.47283 0.671443 -0.679489 11
3.43602 1.32206 -0.578271 51
2.77079 0.534009 -0.746207 4
1.9319 0.744862 0.54475 63
3.48237 0.670761 0.554899 55
1.99612 0.765454 0.408441 38
3.48241 0.671387 0.307224 53
1.97022 0.752732 0.254345 30
3.48056 0.669771 0.0612579 53
1.94062 0.73981 0.107027 31
3.48625 0.670234 -0.184836 53
3.48506 0.668749 -0.430804 53
3.44545 1.31608 -0.319006 55
3.474 0.66538 -0.679489 11
3.44063 1.31695 -0.578662 52
2.76706 0.527785 -0.744913 4
1.94041 0.736123 0.546043 49
3.48594 0.65191 0.554899 53
1.99781 0.75412 0.407965 42
3.48599 0.652536 0.307224 53
1.96731 0.739426 0.253432 31
3.48402 0.651538 0.0612579 53
1.93058 0.724007 0.106242 30
3.48972 0.651971 -0.184836 52
3.49594 0.651244 -0.431717 53
3.40803 1.28131 -0.314874 31
3.47513 0.646127 -0.679012 11
3.42461 1.28958 -0.574747 51
2.77454 0.514168 -0.746207 4
1.93718 0.731019 0.54475 49
3.47736 0.64403 0.553338 53
1.99912 0.750632 0.407965 42
3.47978 0.645091 0.30657 53
1.97324 0.73774 0.254041 44
3.48024 0.644548 0.0611707 53
1.93184 0.720637 0.106242 35
3.48348 0.644519 -0.184442 53
3.48243 0.642446 -0.429891 53
3.46901 0.63873 -0.677584 11
2.77068 0.508455 -0.744913 4
1.94324 0.721712 0.545397 52
3.48312 0.626249 0.553728 53
1.99153 0.735876 0.405582 41
3.48801 0.627743 0.307006 53
1.97009 0.724812 0.253128 42
3.4811 0.625875 0.061127 52
1.92856 0.707914 0.105849 37
3.48927 0.626711 -0.184574 53
3.49308 0.625513 -0.430804 53
3.47714 0.62142 -0.678536 13
2.78282 0.49563 -0.7475 7
3.47375 0.618324 0.80523 52
1.95129 0.720846 0.547335 53
3.47437 0.619049 0.552167 52
1.99511 0.73325 0.406058 39
3.4842 0.620783 0.30657 53
1.96657 0.719999 0.252519 41
3.47727 0.618925 0.0610398 53
1.92967 0.704884 0.105849 39
3.48544 0.619748 -0.184311 52
1.92062 0.70042 -0.0350793 30
3.48428 0.618295 -0.429587 53
1.96507 0.717122 -0.179618 30
3.47097 0.61407 -0.677108 13
2.0013 0.731991 -0.332398 27
2.77892 0.489936 -0.746207 7
3.47934 0.600541 0.805792 53
1.94811 0.708468 0.545397 52
3.48243 0.601687 0.552948 55
1.98727 0.718942 0.403675 39
3.47993 0.601869 0.305917 53
1.95865 0.705461 0.250998 41
3.48036 0.601317 0.0610398 53
1.92395 0.691372 0.105326 39
3.48864 0.60149 -0.184311 52
1.91474 0.68729 -0.0349048 35
3.48992 0.600462 -0.429891 55
1.95943 0.703436 -0.178748 32
3.47646 0.596909 -0.677584 13
1.99582 0.718137 -0.330832 37
2.78136 0.475864 -0.746207 7
2.02608 0.731458 -0.488529 25
3.47798 0.594058 0.80523 53
1.94934 0.705067 0.545397 51
3.47374 0.593948 0.551387 53
1.99326 0.716797 0.404628 39
3.47361 0.594537 0.305263 53
1.96455 0.703726 0.251607 42
3.47411 0.593374 0.0609089 52
1.92985 0.689704 0.105588 42
3.48476 0.594563 -0.184048 52
1.89947 0.678026 -0.0345994 35
3.48607 0.593539 -0.429283 55
3.47023 0.58961 -0.676155 13
1.9901 0.712141 -0.329657 37
2.78942 0.471728 -0.748146 4
2.00902 0.721293 -0.484037 32
3.48355 0.575628 0.805792 53
1.94858 0.692881 0.544104 51
3.48421 0.57635 0.552558 55
1.98311 0.701409 0.401769 38
3.48169 0.576546 0.305699 53
1.96131 0.690598 0.250694 44
3.48457 0.576397 0.0610398 53
1.92414 0.675921 0.105064 42
3.48782 0.576308 -0.184048 52
1.90782 0.669405 -0.0346867 39
3.49412 0.575474 -0.429891 53
3.47822 0.571619 -0.677108 13
1.98682 0.699236 -0.328483 45
2.80138 0.458673 -0.750733 4
3.47964 0.569371 0.804669 53
1.94979 0.689479 0.544104 51
3.4778 0.569682 0.551387 53
1.98202 0.697127 0.401292 35
3.47532 0.569264 0.305045 52
1.96473 0.688342 0.250998 42
3.47324 0.568301 0.0608216 53
1.9252 0.672897 0.105064 44
3.48143 0.569015 -0.183655 52
1.91371 0.667732 -0.0347739 44
3.48278 0.567992 -0.42837 53
1.96314 0.685483 -0.17853 37
3.4671 0.563584 -0.674727 13
1.98105 0.693304 -0.327308 41
2.79503 0.452628 -0.748793 7
3.48017 0.550764 0.804107 53
1.9487 0.678003 0.542812 51
3.4783 0.551079 0.550997 53
1.97394 0.683046 0.398909 32
3.47816 0.551666 0.305045 53
1.95893 0.674791 0.249781 42
3.48101 0.551494 0.0609089 53
1.92633 0.661991 0.104934 44
3.49167 0.552554 -0.184048 53
1.90289 0.653135 -0.0345121 44
3.49061 0.55052 -0.428979 55
1.95482 0.671466 -0.177443 34
3.47233 0.546409 -0.675203 13
1.97765 0.680496 -0.326134 42
2.80682 0.439966 -0.75138 4
1.97857 0.683089 -0.474491 37
3.47862 0.54492 0.803546 53
1.9476 0.673806 0.542166 51
3.4817 0.545389 0.551387 53
1.96817 0.677189 0.39748 34
3.47911 0.545595 0.305045 53
1.96011 0.671371 0.249781 42
3.47702 0.544646 0.0608216 53
1.92749 0.658628 0.104934 45
3.49016 0.546075 -0.183917 53
1.90875 0.651439 -0.0345994 44
3.48911 0.544046 -0.428675 55
1.94186 0.66319 -0.176138 30
3.4757 0.540724 -0.675679 13
1.97884 0.677043 -0.326134 46
2.80043 0.433961 -0.74944 4
1.97285 0.677246 -0.472806 37
3.48393 0.526454 0.804107 53
1.9511 0.663599 0.542166 51
3.47718 0.526046 0.550216 52
1.96704 0.665291 0.396526 37
3.477 0.526627 0.304609 53
1.96125 0.660301 0.249477 42
3.47983 0.526433 0.0608216 53
1.93327 0.649327 0.105064 46
3.48813 0.52644 -0.183655 53
1.91214 0.641436 -0.0345994 45
3.49191 0.525769 -0.428675 55
1.9407 0.651079 -0.175703 38
3.46878 0.521063 -0.673775 13
1.97768 0.665088 -0.325351 41
2.80266 0.419292 -0.74944 4
1.97176 0.665338 -0.471683 37
3.47761 0.519296 0.802423 53
1.95225 0.660193 0.542166 49
3.48053 0.520341 0.550606 55
1.97064 0.6623 0.397003 41
3.47791 0.520558 0.304609 55
1.96005 0.656084 0.249173 44
3.47836 0.519383 0.060778 53
1.92967 0.644359 0.104803 44
3.48163 0.519249 -0.183261 52
1.90851 0.636504 -0.0345121 44
3.48791 0.518946 -0.428066 55
1.94183 0.647691 -0.175703 38
3.46968 0.515008 -0.673775 13
1.98118 0.662423 -0.325742 44
2.80585 0.414262 -0.750086 7
1.97061 0.661115 -0.471121 41
3.47796 0.500127 0.801861 52
1.95122 0.648087 0.540873 48
3.47597 0.500449 0.549436 52
1.96942 0.650423 0.39605 44
3.48314 0.502087 0.304827 55
1.96121 0.64469 0.248869 42
3.47856 0.500808 0.0607344 53
1.9355 0.634693 0.104934 44
3.48677 0.501367 -0.183392 53
1.91193 0.626169 -0.0345121 45
3.49313 0.500418 -0.42837 55
1.94283 0.636733 -0.175486 38
3.47242 0.496228 -0.673775 13
1.9777 0.649368 -0.324568 48
2.80798 0.399565 -0.750086 7
1.96722 0.648141 -0.469437 44
3.48115 0.495006 0.802423 53
1.95464 0.645443 0.54152 46
3.48172 0.495075 0.550216 55
1.96823 0.646214 0.395573 44
3.47662 0.494957 0.304174 55
1.95762 0.639713 0.24826 42
3.47943 0.494736 0.0607344 53
1.93898 0.632093 0.105064 42
3.48517 0.49493 -0.183261 53
1.92015 0.62517 -0.034643 45
3.48908 0.493627 -0.427762 55
1.93684 0.63101 -0.174834 37
3.47085 0.489825 -0.673298 13
1.98352 0.647458 -0.325351 45
2.80867 0.394664 -0.750086 8
1.97066 0.64547 -0.469998 45
3.47887 0.476113 0.801299 53
1.96017 0.636293 0.542166 46
3.48174 0.477112 0.549826 53
1.96914 0.635484 0.395097 46
3.48154 0.477692 0.304391 55
1.96319 0.630561 0.248564 44
3.48189 0.477119 0.0607344 55
1.94453 0.623038 0.105195 42
3.48771 0.476675 -0.183261 53
1.92329 0.615443 -0.034643 44
3.48662 0.475292 -0.427153 55
1.93775 0.620096 -0.174616 37
3.46599 0.471262 -0.67187 14
1.98207 0.635891 -0.324568 42
2.80346 0.379475 -0.748146 4
1.97622 0.636239 -0.47056 44
3.47728 0.469715 0.800738 53
1.96128 0.632871 0.542166 45
3.47522 0.470044 0.548655 53
1.97736 0.633967 0.396526 45
3.47497 0.470615 0.303738 52
1.9572 0.624853 0.247652 45
3.47784 0.469766 0.0606471 53
1.94323 0.61888 0.105064 42
3.48112 0.469589 -0.182867 52
1.9196 0.610559 -0.0345558 39
3.4899 0.469536 -0.427458 55
1.9412 0.617473 -0.174834 39
3.47167 0.465863 -0.672822 13
1.98788 0.633942 -0.325351 41
2.80418 0.374092 -0.748146 4
1.97965 0.633537 -0.471121 42
3.47494 0.450271 0.799615 52
1.96698 0.622985 0.542812 44
3.48261 0.451868 0.549436 55
1.97831 0.622862 0.39605 45
3.4824 0.452446 0.304174 55
1.96056 0.614254 0.247652 45
3.47529 0.450909 0.0605599 53
1.94894 0.609108 0.105195 42
3.48848 0.451995 -0.183129 52
1.92764 0.601665 -0.034643 37
3.48747 0.450014 -0.426849 55
1.9444 0.607301 -0.174834 39
3.46683 0.446136 -0.671394 14
1.98893 0.622434 -0.324959 41
2.8085 0.35971 -0.748793 4
1.99234 0.625758 -0.473367 39
3.47806 0.44512 0.800176 53
1.97036 0.620281 0.543458 42
3.47605 0.444851 0.548265 53
1.9794 0.619408 0.39605 45
3.48319 0.446368 0.304174 55
1.95926 0.610088 0.247347 46
3.47608 0.444843 0.0605599 55
1.95238 0.606452 0.105326 41
3.48431 0.445275 -0.182867 53
1.93584 0.600538 -0.0347739 37
3.48579 0.443614 -0.426545 55
1.95259 0.606138 -0.175486 35
3.47248 0.440701 -0.672346 13
1.99237 0.619701 -0.325351 42
2.80672 0.354506 -0.748146 4
1.99575 0.623012 -0.473929 39
3.48041 0.426295 0.800176 53
1.97589 0.610675 0.544104 39
3.47343 0.426046 0.547485 53
1.98496 0.609762 0.396526 45
3.47312 0.42661 0.303084 53
1.9648 0.600552 0.247652 46
3.47588 0.426333 0.0605162 53
1.95791 0.596954 0.105457 41
3.47916 0.426118 -0.182473 52
1.93896 0.590394 -0.0347739 35
3.48806 0.425357 -0.426545 55
1.9605 0.597369 -0.175921 27
3.46499 0.421332 -0.670441 14
2.80614 0.339516 -0.7475 4
2.0083 0.61543 -0.476175 41
3.47624 0.420245 0.799053 52
1.97695 0.607225 0.544104 39
3.46919 0.419997 0.546704 53
1.98836 0.607019 0.397003 44
3.47138 0.42025 0.302866 52
1.96337 0.596738 0.247347 48
3.46917 0.419368 0.0603853 52
1.95885 0.593878 0.105457 41
3.48734 0.420939 -0.182867 52
1.95673 0.592116 -0.0350793 37
3.48873 0.419877 -0.426545 55
3.46572 0.415283 -0.670441 13
2.80913 0.334903 -0.748146 4
3.47356 0.40148 0.79793 53
1.98231 0.597914 0.54475 39
3.46644 0.401261 0.545924 53
1.98906 0.596237 0.396526 44
3.47594 0.40296 0.303084 55
1.96884 0.587164 0.247652 46
3.47373 0.40209 0.060429 53
1.96432 0.584331 0.105588 39
3.48205 0.401818 -0.182473 52
1.96449 0.583639 -0.0351666 32
3.48841 0.401322 -0.426241 55
3.4629 0.397179 -0.669489 13
2.81079 0.32068 -0.748146 4
3.47667 0.395692 0.798492 53
1.98797 0.595851 0.546043 38
3.46958 0.395489 0.546314 53
1.9902 0.592417 0.396526 44
3.47169 0.39633 0.302648 55
1.96511 0.582306 0.247043 45
3.4745 0.395421 0.060429 55
1.96534 0.580902 0.105588 38
3.48523 0.396021 -0.182604 53
1.98227 0.585203 -0.035472 31
3.48417 0.394676 -0.425632 55
3.45627 0.390311 -0.668061 10
2.8114 0.315283 -0.748146 4
3.47876 0.376875 0.798492 53
1.99348 0.585773 0.546689 38
3.47167 0.376711 0.546314 53
1.99328 0.581988 0.396526 44
3.47378 0.37754 0.302648 53
1.97537 0.573758 0.247956 46
3.46658 0.376148 0.0602544 52
1.97564 0.57236 0.10598 38
3.48477 0.3775 -0.182473 52
1.99501 0.57727 -0.0356465 32
3.48379 0.375555 -0.425328 55
3.46078 0.371867 -0.668537 10
2.81541 0.300814 -0.748793 4
3.47208 0.370638 0.796807 52
2.00145 0.584339 0.548628 37
3.46735 0.370734 0.545533 53
1.99194 0.577819 0.39605 44
3.47444 0.371477 0.302648 55
1.97389 0.569961 0.247652 45
3.4722 0.370626 0.0603417 55
1.98373 0.571346 0.106373 39
3.48294 0.371153 -0.182342 52
2.01042 0.577964 -0.0359083 31
3.48191 0.369821 -0.425024 55
3.45654 0.365312 -0.667584 11
2.27509 0.656815 -0.369984 31
2.82794 0.297156 -0.752026 4
3.47155 0.352208 0.796246 53
2.00903 0.575543 0.54992 35
3.46924 0.352574 0.545533 53
1.99719 0.568407 0.396526 42
3.47379 0.353635 0.30243 55
1.97923 0.560299 0.247956 45
3.47652 0.353299 0.0603853 55
1.9867 0.560951 0.106373 39
3.47739 0.35216 -0.181948 52
2.03495 0.573937 -0.036301 30
3.47886 0.351088 -0.424415 24
3.46567 0.348546 -0.669013 13
2.27137 0.642862 -0.368809 31
2.8198 0.281882 -0.74944 4
3.46731 0.345667 0.795123 52
2.01467 0.573368 0.551213 35
3.47231 0.346763 0.545924 53
1.99592 0.563899 0.39605 42
3.46945 0.347078 0.301995 55
1.98498 0.558199 0.248564 45
3.4747 0.346377 0.0603417 55
1.99248 0.558843 0.106635 41
3.46806 0.345105 -0.181423 53
2.04317 0.572423 -0.0364319 30
3.477 0.344772 -0.424111 24
3.46383 0.342257 -0.668537 13
2.26299 0.636204 -0.367243 34
2.82754 0.277171 -0.75138 4
3.457 0.325764 0.792315 48
2.02704 0.565075 0.553797 34
3.45447 0.326122 0.542802 20
2.00594 0.555422 0.39748 41
3.42665 0.324098 0.298073 11
1.99993 0.550773 0.250086 44
3.46652 0.327243 0.0601672 55
2.00028 0.549388 0.106896 41
3.46982 0.326942 -0.181423 53
2.09442 0.574695 -0.0373045 34
3.46893 0.325033 -0.422894 41
3.46074 0.323056 -0.667584 13
2.27115 0.625272 -0.368026 35
2.82655 0.262141 -0.750733 4
3.22221 0.298629 0.737847 3
2.035 0.563486 0.555736 32
3.21898 0.298319 0.50534 3
2.00454 0.551263 0.397003 39
3.20153 0.297262 0.278245 3
1.99371 0.545301 0.249173 42
3.45215 0.319814 0.0599054 55
1.99642 0.544571 0.106635 39
3.46044 0.31997 -0.180898 14
2.1147 0.576339 -0.0376536 37
3.47691 0.319656 -0.423807 55
3.46863 0.317684 -0.669013 13
2.26748 0.619995 -0.367243 32
2.82701 0.257207 -0.750733 4
3.28202 0.286246 0.751324 3
2.04724 0.555374 0.558321 37
3.19343 0.279107 0.501048 3
2.01924 0.54398 0.399386 41
3.25515 0.285034 0.28282 3
2.00612 0.537445 0.25039 42
3.46125 0.302384 0.0600363 53
2.00407 0.53541 0.106896 39
3.46953 0.302495 -0.181292 14
2.1201 0.565908 -0.0376972 34
3.47606 0.301234 -0.423502 55
3.46291 0.298888 -0.667584 13
2.28013 0.611086 -0.368809 28
2.8235 0.241991 -0.74944 4
3.22907 0.276541 0.73897 48
2.05287 0.553067 0.559613 34
3.20371 0.274931 0.502609 49
2.01545 0.539175 0.398433 39
3.19609 0.274268 0.277591 45
2.00696 0.534293 0.25039 41
3.44433 0.294857 0.0597309 53
2.00491 0.532261 0.106896 39
3.46508 0.296016 -0.181029 46
2.1066 0.558333 -0.0374354 39
3.47406 0.295564 -0.423198 52
2.16152 0.573409 -0.19223 34
3.46098 0.292638 -0.667108 14
2.27642 0.605826 -0.368026 27
2.82392 0.237063 -0.74944 4
3.21833 0.258659 0.736162 44
2.06731 0.545779 0.562844 34
3.21003 0.258547 0.503389 45
2.02527 0.53085 0.399862 38
3.19495 0.257888 0.277373 46
2.01453 0.52504 0.250998 39
3.42585 0.275824 0.0593818 11
2.02216 0.525557 0.107681 38
3.47156 0.278265 -0.181292 53
2.1094 0.547664 -0.0374354 41
3.47803 0.277566 -0.423502 55
2.17172 0.563977 -0.192882 35
3.45264 0.274343 -0.665204 14
2.28911 0.596408 -0.369592 30
2.8299 0.223144 -0.750733 4
3.22849 0.253801 0.738408 46
2.07526 0.544023 0.564783 35
3.18093 0.25063 0.498707 45
2.02391 0.526338 0.399386 35
3.20285 0.252897 0.278027 49
2.02024 0.522778 0.251607 38
3.44132 0.270415 0.0596436 11
2.02066 0.521398 0.10755 37
3.47452 0.2724 -0.181423 53
2.10067 0.541464 -0.0372609 38
3.47851 0.271495 -0.423502 55
2.16547 0.558305 -0.19223 34
3.45556 0.268506 -0.66568 15
2.83273 0.217895 -0.75138 4
3.1958 0.233856 0.730547 46
2.08987 0.535812 0.568014 32
3.19948 0.234672 0.501438 51
2.03852 0.518787 0.401769 34
3.18181 0.23393 0.276066 48
2.02785 0.513068 0.252215 38
3.44519 0.252574 0.0596872 53
2.0307 0.512306 0.107943 37
3.47341 0.254023 -0.181292 55
2.10599 0.530707 -0.0373045 37
3.47745 0.252492 -0.423198 55
2.17077 0.547574 -0.192447 38
3.44961 0.249278 -0.664251 18
2.82661 0.202546 -0.74944 4
3.17186 0.227106 0.724932 42
2.09314 0.532765 0.56866 32
3.13831 0.224706 0.491682 46
2.03942 0.515229 0.401769 34
